ply
format ascii 1.0
element vertex 835
property float x
property float y
property float z
property float nx
property float ny
property float nz
end_header
-0.0732422 0.313477 0.846575 -0.0736527 0.0785737 -0.994184
-0.0673828 0.313477 0.84617 -0.164031 0.0956767 -0.981804
-0.0615234 0.313477 0.844354 -0.052905 0.111645 -0.992339
-0.0556641 0.313477 0.84412 0.0354362 0.117075 -0.992491
-0.0498047 0.313477 0.844797 -0.00142893 0.128798 -0.99167
-0.0908203 0.325195 0.846728 0.0423766 0.0904653 -0.994998
-0.0849609 0.325195 0.846756 0.0381803 0.111407 -0.993041
-0.0791016 0.325195 0.847049 0.0291408 0.106872 -0.993846
-0.0732422 0.325195 0.847376 -0.0600457 0.087209 -0.994379
-0.0673828 0.325195 0.847518 -0.145054 0.065987 -0.987221
-0.0615234 0.325195 0.846008 -0.0704019 0.0570135 -0.995888
-0.0556641 0.325195 0.845715 0.0204387 0.0682674 -0.997458
-0.0498047 0.325195 0.845913 0.0158273 0.0831567 -0.996411
-0.0380859 0.28418 0.84277 -0.0222579 0.0569006 -0.998132
-0.0322266 0.28418 0.841949 0.0331313 0.0563754 -0.99786
-0.0205078 0.28418 0.842771 0.0610862 0.0598151 -0.996339
-0.0439453 0.295898 0.842751 0.011659 0.0208163 -0.999715
-0.0439453 0.295479 0.842773 0.010359 0.0177804 -0.999788
-0.0439453 0.290039 0.843067 -0.00220268 0.00743131 -0.99997
-0.0380859 0.290039 0.842941 0.00137982 0.0503351 -0.998731
-0.0322266 0.290039 0.842783 0.0333625 0.0521353 -0.998083
-0.0263672 0.290039 0.84303 0.0555939 0.0546839 -0.996955
-0.0205078 0.290039 0.843307 0.0544823 0.0607651 -0.996664
-0.0146484 0.290039 0.843824 0.0357124 0.0440145 -0.998392
-0.00878906 0.290039 0.843852 0.0380355 0.0291482 -0.998851
-0.00292969 0.290039 0.844057 0.0546776 0.0459765 -0.997445
-0.0439453 0.301758 0.842955 0.000430288 0.0770874 -0.997024
-0.0380859 0.301758 0.84321 0.0288501 0.0632415 -0.997581
-0.0322266 0.301758 0.8433 0.0534695 0.0699926 -0.996113
-0.0263672 0.301758 0.843343 0.0732825 0.0804283 -0.994063
-0.0205078 0.301758 0.844067 0.0527508 0.0760707 -0.995706
-0.0146484 0.301758 0.844323 0.013336 0.081115 -0.996616
-0.00878906 0.301758 0.844347 0.0148936 0.0779217 -0.996848
-0.00292969 0.301758 0.844266 0.084879 0.0415022 -0.995527
-0.0439453 0.313477 0.844396 -0.00890275 0.141427 -0.989909
-0.0380859 0.313477 0.844627 0.00795952 0.156277 -0.987681
-0.0322266 0.313477 0.844342 0.0302704 0.149524 -0.988295
-0.0263672 0.313477 0.844602 0.0372946 0.117079 -0.992422
-0.0205078 0.313477 0.845208 0.0167102 0.0736019 -0.997148
-0.0146484 0.313477 0.845326 0.0141696 0.0288019 -0.999485
-0.00878906 0.313477 0.845573 0.0106841 0.0277962 -0.999556
-0.00292969 0.313477 0.845365 0.0522933 0.0569841 -0.997005
-0.038226 0.28418 0.842773 -0.0239221 0.0566603 -0.998107
-0.0439453 0.28418 0.842924 -0.0122687 0.0349178 -0.999315
-0.0380859 0.284302 0.842773 -0.0218511 0.0569818 -0.998136
-0.0270462 0.28418 0.842773 0.0548397 0.0527501 -0.997101
-0.0322266 0.289972 0.842773 0.0333371 0.0523724 -0.998071
-0.0206212 0.28418 0.842773 0.0609114 0.0601087 -0.996332
-0.0263672 0.28418 0.842883 0.0550252 0.055503 -0.996941
-0.0204905 0.28418 0.842773 0.061116 0.0597718 -0.996339
-0.0205078 0.284203 0.842773 0.0610462 0.0598341 -0.99634
-0.0146484 0.28418 0.843499 0.0533943 0.0428211 -0.997655
-0.00878906 0.28418 0.843589 0.0355177 0.0221665 -0.999123
-0.00292969 0.28418 0.844007 0.0274908 0.0342216 -0.999036
-0.0439453 0.325195 0.84568 0.031065 0.0917421 -0.995298
-0.0380859 0.325195 0.84607 0.0396815 0.088717 -0.995266
-0.0322266 0.325195 0.84632 0.0171179 0.104375 -0.994391
-0.0263672 0.325195 0.846551 -0.00867865 0.0998021 -0.994969
-0.0205078 0.325195 0.846273 -0.027295 0.119288 -0.992484
-0.0146484 0.325195 0.846052 -0.0241323 0.139099 -0.989984
-0.00878906 0.325195 0.845646 0.0210823 0.129398 -0.991369
-0.00292969 0.325195 0.845957 0.0843864 0.136815 -0.986996
-0.0435581 0.295898 0.842773 0.0138639 0.0210278 -0.999683
-0.0439453 0.296516 0.842773 0.0135536 0.0250375 -0.999595
-0.0380859 0.295898 0.843103 0.0226104 0.0383649 -0.999008
-0.0322266 0.295898 0.84307 0.0378031 0.0476113 -0.99815
-0.0263672 0.295898 0.843402 0.0637529 0.0580848 -0.996274
-0.0205078 0.295898 0.843555 0.0511036 0.0659496 -0.996513
-0.0146484 0.295898 0.844048 0.0214313 0.056753 -0.998158
-0.00878906 0.295898 0.844203 0.0379268 0.0435618 -0.998331
-0.00292969 0.295898 0.844218 0.0800662 0.0337428 -0.996218
-0.0439453 0.307617 0.843573 -0.0150687 0.128962 -0.991535
-0.0380859 0.307617 0.843551 0.0161216 0.121879 -0.992414
-0.0322266 0.307617 0.843566 0.0550122 0.112203 -0.992161
-0.0263672 0.307617 0.84415 0.0704235 0.0998029 -0.992512
-0.0205078 0.307617 0.844599 0.0536946 0.0737758 -0.995828
-0.0146484 0.307617 0.844932 0.0258203 0.0636116 -0.997641
-0.00878906 0.307617 0.845109 -0.00318314 0.0724356 -0.997368
-0.00292969 0.307617 0.844905 0.0581009 0.0579651 -0.996626
-0.0439453 0.319336 0.845358 0.014629 0.114567 -0.993308
-0.0380859 0.319336 0.845395 0.0227542 0.133514 -0.990786
-0.0322266 0.319336 0.845572 0.0118823 0.142366 -0.989743
-0.0263672 0.319336 0.845649 -0.0078293 0.11868 -0.992902
-0.0205078 0.319336 0.845741 -0.0353391 0.10092 -0.994267
-0.0146484 0.319336 0.845574 -0.0194002 0.0770592 -0.996838
-0.00878906 0.319336 0.845328 0.0255904 0.0635817 -0.997648
-0.00292969 0.319336 0.845528 0.0738214 0.0871219 -0.993459
0.00292969 0.290039 0.844435 0.0324824 0.0802351 -0.996247
0.00878906 0.290039 0.844652 0.0331186 0.0780827 -0.996397
0.0146484 0.290039 0.844628 0.076772 0.0710329 -0.994515
0.0205078 0.290039 0.845528 0.0833038 0.0449326 -0.995511
0.0263672 0.290039 0.845869 0.193352 0.0185683 -0.980954
0.0322266 0.290039 0.846124 0.347879 0.0252343 -0.9372
0.00292969 0.301758 0.845109 0.102516 0.0580514 -0.993036
0.00878906 0.301758 0.845776 0.0340817 0.108463 -0.993516
0.0146484 0.301758 0.845547 0.036737 0.096545 -0.99465
0.0205078 0.301758 0.846096 0.0853994 0.0847224 -0.992738
0.0263672 0.301758 0.846776 0.171947 0.0820152 -0.981686
0.0322266 0.301758 0.847386 0.308307 0.0504315 -0.949949
0.00292969 0.28418 0.843876 0.0196714 0.0639516 -0.997759
0.00878906 0.28418 0.844023 0.0332812 0.0696108 -0.997019
0.0146484 0.28418 0.844091 0.0939001 0.075651 -0.992703
0.0205078 0.28418 0.844605 0.134593 0.0489176 -0.989693
0.0263672 0.28418 0.846003 0.210029 0.0118068 -0.977624
0.0322266 0.28418 0.846594 0.303613 0.0563387 -0.951128
0.00292969 0.313477 0.84545 0.110994 0.0448225 -0.99281
0.00878906 0.313477 0.846629 0.095925 0.0564786 -0.993785
0.0146484 0.313477 0.846785 0.082316 0.0999119 -0.991585
0.0205078 0.313477 0.847155 0.0748459 0.114764 -0.990569
0.0263672 0.313477 0.847986 0.129116 0.102433 -0.986325
0.0322266 0.313477 0.847875 0.283858 0.0860938 -0.954994
0.00292969 0.295898 0.844915 0.0508286 0.0739378 -0.995967
0.00878906 0.295898 0.845049 0.02234 0.102099 -0.994523
0.0146484 0.295898 0.844884 0.0633513 0.0760236 -0.995091
0.0205078 0.295898 0.845568 0.0866459 0.0608148 -0.994381
0.0263672 0.295898 0.845885 0.181303 0.0741313 -0.980629
0.0322266 0.295898 0.846363 0.333718 0.0425727 -0.941711
0.00292969 0.325195 0.846451 0.113584 0.150293 -0.982095
0.00878906 0.325195 0.847334 0.0993132 0.123042 -0.98742
0.0146484 0.325195 0.848005 0.0969201 0.0962286 -0.990629
0.0205078 0.325195 0.848289 0.0923525 0.11084 -0.989538
0.00292969 0.307617 0.845002 0.121008 0.0405014 -0.991825
0.00878906 0.307617 0.84652 0.0598577 0.0686802 -0.995841
0.0146484 0.307617 0.846401 0.0363821 0.100414 -0.99428
0.0205078 0.307617 0.846277 0.0705283 0.113219 -0.991064
0.0263672 0.307617 0.846756 0.155214 0.090969 -0.983684
0.0322266 0.307617 0.847339 0.298816 0.0673852 -0.951929
0.00292969 0.319336 0.845806 0.117463 0.0941233 -0.988607
0.00878906 0.319336 0.846642 0.116206 0.0924173 -0.988916
0.0146484 0.319336 0.847349 0.096359 0.100867 -0.990223
0.0205078 0.319336 0.847865 0.07592 0.110332 -0.990991
0.0263672 0.319336 0.848528 0.124387 0.118926 -0.985081
0.0322266 0.319336 0.848353 0.281696 0.104352 -0.953812
0.0363462 0.290039 0.848633 0.344545 0.0466912 -0.937608
0.0380859 0.290039 0.849554 0.276883 0.0673346 -0.958541
0.0439453 0.290039 0.850956 0.0917176 0.099437 -0.990808
0.0355256 0.301758 0.848633 0.366528 0.02783 -0.929991
0.0380859 0.301758 0.849634 0.305155 0.0313257 -0.951787
0.0439453 0.301758 0.852042 0.118271 0.0489552 -0.991774
0.0368328 0.28418 0.848633 0.27783 0.0976115 -0.955658
0.0380859 0.28418 0.849137 0.238347 0.0976918 -0.966254
0.0439453 0.28418 0.850555 0.104329 0.0930876 -0.990177
0.0339693 0.313477 0.848633 0.329234 0.0839887 -0.940506
0.0380859 0.313477 0.850377 0.306322 0.0855262 -0.948078
0.0439453 0.313477 0.852466 0.154489 0.100609 -0.982859
0.0361229 0.295898 0.848633 0.372402 0.0160654 -0.927933
0.0380859 0.295898 0.8498 0.309235 0.0361693 -0.950297
0.0439453 0.295898 0.85172 0.101529 0.0770233 -0.991846
0.0234178 0.325195 0.848633 0.0735347 0.120147 -0.990029
0.0205078 0.32741 0.848633 0.104323 0.107686 -0.988696
0.0263672 0.325195 0.848994 0.124287 0.127204 -0.984059
0.0322266 0.325195 0.849177 0.268579 0.125691 -0.955022
0.0380859 0.325195 0.851416 0.315493 0.125967 -0.94053
0.0439453 0.325195 0.853931 0.203981 0.140056 -0.968905
0.0351558 0.307617 0.848633 0.36344 0.067927 -0.929138
0.0380859 0.307617 0.849868 0.301278 0.0557952 -0.951903
0.0439453 0.307617 0.852291 0.129682 0.0658628 -0.989366
0.0263672 0.320587 0.848633 0.126814 0.124684 -0.984059
0.0328265 0.319336 0.848633 0.299205 0.100641 -0.948867
0.0322266 0.321279 0.848633 0.284256 0.112033 -0.95218
0.0380859 0.319336 0.850943 0.316665 0.103806 -0.94284
0.0439453 0.319336 0.853028 0.169009 0.116192 -0.978742
0.0498047 0.28418 0.850861 0.063111 0.0842383 -0.994445
0.0556641 0.28418 0.851329 0.0693456 0.0686365 -0.995229
0.0615234 0.28418 0.851559 0.0899032 0.0297656 -0.995506
0.0673828 0.28418 0.85252 0.059572 0.00186242 -0.998222
0.0732422 0.28418 0.852878 0.00949039 0.0155072 -0.999835
0.0791016 0.28418 0.852461 0.0231912 0.0678792 -0.997424
0.0849609 0.28418 0.852581 0.0129619 0.120659 -0.992609
0.0908203 0.28418 0.852494 0.0212032 0.132174 -0.991
0.0498047 0.295898 0.851766 0.0152912 0.0633066 -0.997877
0.0556641 0.295898 0.851911 0.0393382 0.0652941 -0.99709
0.0615234 0.295898 0.851967 0.0590257 0.0951355 -0.993713
0.0673828 0.295898 0.852315 0.0598837 0.10656 -0.992501
0.0732422 0.295898 0.852701 0.0592153 0.127178 -0.990111
0.0791016 0.295898 0.852956 0.0946223 0.115409 -0.988801
0.0849609 0.295898 0.853651 0.105691 0.106074 -0.988725
0.0908203 0.295898 0.854445 0.0404652 0.13419 -0.990129
0.0498047 0.290039 0.850874 0.0385188 0.0707787 -0.996748
0.0556641 0.290039 0.851693 0.0436029 0.0531808 -0.997633
0.0615234 0.290039 0.851659 0.054864 0.0416994 -0.997623
0.0673828 0.290039 0.85219 0.0542053 0.0219389 -0.998289
0.0732422 0.290039 0.852601 0.0526308 0.0430776 -0.997684
0.0791016 0.290039 0.852449 0.0830894 0.0716834 -0.993961
0.0849609 0.290039 0.853405 0.0593067 0.113191 -0.991802
0.0908203 0.290039 0.853447 0.0292962 0.157824 -0.987032
0.0498047 0.307617 0.852488 0.0432352 0.093206 -0.994708
0.0556641 0.307617 0.852278 0.0959801 0.0995109 -0.990397
0.0615234 0.307617 0.853374 0.118434 0.116744 -0.986075
0.0673828 0.307617 0.853946 0.0959528 0.130581 -0.986784
0.0498047 0.301758 0.852197 0.0267971 0.0575275 -0.997984
0.0556641 0.301758 0.852181 0.0749212 0.07682 -0.994226
0.0615234 0.301758 0.852629 0.0960618 0.112423 -0.989006
0.0673828 0.301758 0.853091 0.0881464 0.135728 -0.986817
0.0732422 0.301758 0.853673 0.0609117 0.148406 -0.987049
0.0791016 0.301758 0.853786 0.0600509 0.12822 -0.989926
0.0849609 0.301758 0.854136 0.0790813 0.0889317 -0.992893
0.0498047 0.319336 0.853984 0.0904099 0.160032 -0.982963
0.0556641 0.319336 0.853946 0.117293 0.201752 -0.972388
0.0498047 0.313477 0.853012 0.0593482 0.128803 -0.989893
0.0556641 0.313477 0.853153 0.096472 0.148189 -0.984242
0.0615234 0.313477 0.853786 0.125283 0.154392 -0.980034
0.0498047 0.325195 0.854423 0.14517 0.202188 -0.968528
0.0966797 0.290039 0.853169 0.0603714 0.133273 -0.989239
0.102539 0.290039 0.854267 0.0917928 0.106718 -0.990043
0.0966797 0.28418 0.852578 0.0773616 0.13957 -0.987186
0.102539 0.28418 0.853108 0.104467 0.151653 -0.982898
0.108398 0.28418 0.853824 0.125143 0.140759 -0.982103
-0.373274 0.37207 0.831055 0.438647 -0.0161538 -0.898514
-0.378507 0.360352 0.831055 0.147935 -0.0849362 -0.985343
-0.37793 0.360955 0.831055 0.1469 -0.0856387 -0.985437
-0.37793 0.360352 0.831359 0.123243 -0.0495877 -0.991137
-0.37793 0.359017 0.831055 0.104711 0.00278893 -0.994499
-0.3737 0.366211 0.831055 0.298204 0.0493513 -0.953225
-0.325195 0.336914 0.83657 0.0748501 0.192151 -0.978507
-0.319336 0.336914 0.836892 0.0627229 0.181335 -0.981419
-0.325195 0.331055 0.835277 0.0408865 0.207554 -0.977369
-0.319336 0.331055 0.835096 0.0782556 0.200941 -0.976472
-0.313477 0.331055 0.835703 0.10181 0.161778 -0.981561
-0.307617 0.331055 0.836514 0.081519 0.12334 -0.989011
-0.325195 0.354492 0.840157 0.179239 0.704417 -0.686782
-0.319336 0.354492 0.841698 -0.0874399 0.453001 -0.887212
-0.313477 0.354492 0.841609 -0.306752 0.35805 -0.881875
-0.307617 0.354492 0.840274 -0.393479 0.193521 -0.898734
-0.301758 0.354492 0.840161 0.23351 0.225022 -0.945959
-0.295898 0.354492 0.841248 0.0624377 0.288187 -0.955536
-0.290039 0.354492 0.841726 0.0171608 0.225155 -0.974172
-0.28418 0.354492 0.840256 0.0701838 0.283323 -0.956453
-0.325195 0.339661 0.836914 0.0930633 0.173754 -0.980382
-0.318834 0.336914 0.836914 0.0628123 0.178698 -0.981897
-0.319336 0.337025 0.836914 0.0624317 0.180201 -0.981646
-0.313477 0.336914 0.837145 0.0518772 0.146397 -0.987865
-0.307617 0.336914 0.837624 0.0558633 0.103196 -0.993091
-0.301758 0.336914 0.837804 0.0852209 0.110664 -0.990197
-0.295898 0.336914 0.838457 0.0534726 0.125568 -0.990643
-0.290039 0.336914 0.839107 0.0111885 0.120715 -0.992624
-0.28418 0.336914 0.83881 0.0264207 0.13579 -0.990385
-0.313477 0.335908 0.836914 0.0622987 0.155349 -0.985893
-0.304718 0.331055 0.836914 0.0589796 0.102742 -0.992958
-0.307617 0.333238 0.836914 0.072884 0.115937 -0.990579
-0.301758 0.331055 0.83734 0.0551981 0.134476 -0.989378
-0.295898 0.331055 0.837384 0.0447914 0.169339 -0.98454
-0.290039 0.331055 0.837783 0.0261419 0.151325 -0.988138
-0.28418 0.331055 0.837863 0.0167088 0.121211 -0.992486
-0.325195 0.348633 0.838539 0.082513 0.465601 -0.88114
-0.319336 0.348633 0.838727 0.000784863 0.530647 -0.847593
-0.313477 0.348633 0.838659 -0.0374634 0.447658 -0.89342
-0.307617 0.348633 0.838962 0.0118879 0.0719809 -0.997335
-0.301758 0.348633 0.838916 0.0788069 0.0991575 -0.991946
-0.295898 0.348633 0.839509 0.0582033 0.181738 -0.981623
-0.290039 0.348633 0.839594 0.0302781 0.187616 -0.981776
-0.28418 0.348633 0.840284 0.0203688 0.223455 -0.974501
-0.325195 0.355163 0.842773 0.185103 0.54343 -0.818792
-0.319336 0.355965 0.842773 -0.115794 0.365895 -0.923424
-0.313477 0.355188 0.842773 -0.31304 0.346437 -0.884301
-0.295898 0.359548 0.842773 -0.0933853 0.78269 -0.615367
-0.322134 0.360352 0.848633 -0.0948167 0.650176 -0.753844
-0.314973 0.360352 0.848633 -0.263278 0.347968 -0.899779
-0.319336 0.360352 0.849208 -0.238016 0.489561 -0.838856
-0.325195 0.342773 0.8373 0.0739824 0.23776 -0.968502
-0.319336 0.342773 0.838028 0.0390569 0.239205 -0.970183
-0.313477 0.342773 0.838176 0.0250842 0.175645 -0.984134
-0.307617 0.342773 0.838411 0.0411566 0.12411 -0.991415
-0.301758 0.342773 0.838353 0.0746054 0.126171 -0.989199
-0.295898 0.342773 0.839176 0.0538212 0.122457 -0.991013
-0.290039 0.342773 0.839548 0.0370149 0.132711 -0.990463
-0.28418 0.342773 0.839636 0.0413096 0.134276 -0.990083
-0.319336 0.35963 0.848633 -0.184024 0.459942 -0.868671
-0.325195 0.360352 0.848081 0.0717524 0.523875 -0.848768
-0.308225 0.360352 0.842773 -0.340962 0.531736 -0.775243
-0.313477 0.360352 0.848469 -0.215157 0.368284 -0.904475
-0.296254 0.360352 0.842773 -0.0638498 0.86252 -0.501979
-0.295898 0.360352 0.843316 -0.107254 0.852681 -0.511304
-0.345884 0.331055 0.831055 0.426704 0.134088 -0.894396
-0.348633 0.336487 0.831055 0.34392 0.130563 -0.929878
-0.342773 0.331055 0.832937 0.28164 0.140677 -0.949152
-0.336914 0.331055 0.835162 0.0667661 0.142871 -0.987487
-0.331055 0.331055 0.835297 0.0223141 0.16776 -0.985575
-0.366211 0.347643 0.831055 0.0585544 0.0565928 -0.996679
-0.355474 0.342773 0.831055 0.190309 0.102375 -0.976372
-0.360352 0.348452 0.831055 0.123712 0.0701338 -0.989837
-0.354492 0.342773 0.831143 0.209413 0.107368 -0.971915
-0.348633 0.342773 0.832233 0.33597 0.100477 -0.936498
-0.342773 0.342773 0.834358 0.272327 0.128017 -0.953651
-0.336914 0.342773 0.836645 0.102004 0.155925 -0.982488
-0.331055 0.342773 0.836538 0.0984406 0.169489 -0.980603
-0.349505 0.336914 0.831055 0.32574 0.13747 -0.935412
-0.354492 0.342063 0.831055 0.209891 0.110036 -0.971513
-0.348633 0.336914 0.831169 0.343267 0.12662 -0.930664
-0.342773 0.336914 0.833895 0.253622 0.108214 -0.961231
-0.336914 0.336914 0.835801 0.0842393 0.117931 -0.989442
-0.331055 0.336914 0.835955 0.0771122 0.152081 -0.985355
-0.367274 0.354492 0.831055 0.0457911 0.0493603 -0.997731
-0.37207 0.35639 0.831055 0.00277794 0.06604 -0.997813
-0.362978 0.354492 0.831055 0.124961 0.0967636 -0.987432
-0.366211 0.354492 0.831148 0.0656269 0.0601415 -0.99603
-0.359784 0.354492 0.831055 0.199106 0.133563 -0.970834
-0.360352 0.356445 0.831055 0.20819 0.158924 -0.965091
-0.354492 0.354492 0.831814 0.286358 0.138147 -0.948111
-0.348633 0.354492 0.833829 0.352871 0.2264 -0.907868
-0.342773 0.354492 0.835619 0.232423 0.207051 -0.950321
-0.366781 0.348633 0.831055 0.0576932 0.0485377 -0.997154
-0.366211 0.348633 0.831155 0.0588073 0.0478687 -0.997121
-0.360352 0.349572 0.831055 0.132943 0.0721277 -0.988496
-0.360352 0.348633 0.831068 0.125223 0.0705378 -0.989618
-0.354492 0.348633 0.831542 0.229197 0.117516 -0.96626
-0.348633 0.348633 0.832711 0.350998 0.148267 -0.924563
-0.342773 0.348633 0.834798 0.294353 0.149262 -0.943969
-0.336914 0.345352 0.836914 0.114368 0.183883 -0.976272
-0.328057 0.342773 0.836914 0.109119 0.197804 -0.974149
-0.331055 0.345316 0.836914 0.0987582 0.194263 -0.975965
-0.37207 0.360352 0.831775 0.0419611 0.0817857 -0.995766
-0.366211 0.360352 0.831493 0.11514 0.138379 -0.983664
-0.360352 0.360352 0.831197 0.196865 0.178151 -0.964109
-0.354492 0.360352 0.833012 0.318266 0.135191 -0.938312
-0.348633 0.360352 0.834513 0.439345 0.287311 -0.851134
-0.37207 0.366211 0.832045 0.212522 0.10195 -0.971823
-0.366211 0.366211 0.832136 0.166419 0.164982 -0.972155
-0.360352 0.366211 0.833175 0.178028 0.175515 -0.968246
-0.354492 0.366211 0.834359 0.33897 0.154813 -0.927972
-0.348633 0.366211 0.834982 0.579649 0.191064 -0.79215
-0.347654 0.37207 0.836914 0.873958 -0.145104 -0.463834
-0.348633 0.376584 0.836914 0.79836 -0.124451 -0.58918
-0.340832 0.354492 0.836914 0.195739 0.20394 -0.959216
-0.342773 0.357222 0.836914 0.274618 0.354823 -0.893692
-0.336914 0.354492 0.838928 0.429637 0.33701 -0.837757
-0.331055 0.354492 0.837908 0.488625 0.475577 -0.731486
-0.37207 0.375416 0.831055 0.404036 -0.0414356 -0.913804
-0.37207 0.37207 0.832178 0.355583 0.0494592 -0.933335
-0.366211 0.37207 0.833058 0.193441 0.153152 -0.969085
-0.360352 0.37207 0.833726 0.191141 0.162996 -0.967935
-0.354492 0.37207 0.835111 0.314954 0.133282 -0.939702
-0.348633 0.37207 0.83604 0.75453 -0.0587957 -0.653627
-0.344863 0.360352 0.836914 0.453506 0.607596 -0.652043
-0.342773 0.360352 0.838559 0.393201 0.601867 -0.69509
-0.346488 0.366211 0.836914 0.893037 0.327158 -0.308954
-0.337837 0.348633 0.836914 0.13899 0.190516 -0.971795
-0.336914 0.348633 0.837258 0.130472 0.202634 -0.970524
-0.331055 0.348633 0.837417 0.14411 0.338846 -0.929739
-0.344824 0.366211 0.842773 0.800314 0.495415 -0.337729
-0.344957 0.37207 0.842773 0.932604 -0.322371 -0.162255
-0.336914 0.359651 0.842773 0.283454 0.648628 -0.706353
-0.342773 0.364007 0.848633 0.412103 0.613604 -0.673544
-0.3378 0.360352 0.842773 0.101862 0.715632 -0.69101
-0.342773 0.363183 0.842773 0.288484 0.871939 -0.395599
-0.336914 0.360352 0.843523 0.127422 0.734707 -0.66631
-0.344732 0.366211 0.848633 0.597862 0.506718 -0.621126
-0.342773 0.366211 0.850703 0.5154 0.556461 -0.6517
-0.345121 0.37207 0.848633 0.944145 -0.0175657 -0.329061
-0.27832 0.336914 0.838962 0.0430646 0.145058 -0.988485
-0.272461 0.336914 0.839173 0.0676511 0.132319 -0.988896
-0.266602 0.336914 0.839665 0.0842743 0.109194 -0.990442
-0.260742 0.336914 0.840254 0.0720373 0.12466 -0.989581
-0.254883 0.336914 0.840665 0.0458065 0.139987 -0.989093
-0.249023 0.336914 0.840974 0.0507897 0.140676 -0.988752
-0.243164 0.336914 0.840975 0.109731 0.153842 -0.981983
-0.237305 0.336914 0.841839 0.0872509 0.159628 -0.983314
-0.27832 0.348633 0.840421 0.0229112 0.197759 -0.979983
-0.272461 0.348633 0.840267 0.0338179 0.090267 -0.995343
-0.266602 0.348633 0.840589 0.0737528 0.0734346 -0.994569
-0.260742 0.348633 0.841047 0.131167 0.237646 -0.962455
-0.254883 0.348633 0.841827 0.112855 0.317143 -0.941639
-0.249023 0.348633 0.842637 0.0729404 0.263667 -0.961852
-0.243164 0.348633 0.842741 0.0600821 0.170565 -0.983513
-0.27832 0.331055 0.838134 0.0351313 0.129558 -0.990949
-0.272461 0.331055 0.838006 0.0807665 0.142858 -0.986442
-0.266602 0.331055 0.838528 0.0912931 0.145525 -0.985133
-0.260742 0.331055 0.83929 0.0646216 0.156865 -0.985504
-0.254883 0.331055 0.83962 0.0558204 0.154629 -0.986394
-0.249023 0.331055 0.840047 0.0474231 0.136715 -0.989475
-0.243164 0.331055 0.840154 0.0765246 0.161017 -0.98398
-0.237305 0.331055 0.840276 0.0807501 0.201618 -0.97613
-0.266602 0.360352 0.841252 0.124883 0.956836 -0.26243
-0.27832 0.342773 0.84005 0.0323341 0.124098 -0.991743
-0.272461 0.342773 0.839824 0.0442851 0.121371 -0.991619
-0.266602 0.342773 0.840064 0.0776859 0.0926304 -0.992665
-0.260742 0.342773 0.84075 0.0953222 0.108966 -0.989464
-0.254883 0.342773 0.841141 0.0707423 0.154722 -0.985422
-0.249023 0.342773 0.841604 0.0607564 0.177059 -0.982323
-0.243164 0.342773 0.841636 0.0955789 0.179786 -0.979051
-0.237305 0.342773 0.842484 0.0588457 0.125269 -0.990376
-0.27832 0.354492 0.839894 -0.132836 0.279803 -0.950823
-0.272461 0.354492 0.841808 -0.0419558 0.226465 -0.973115
-0.266602 0.354492 0.841913 0.203647 0.21459 -0.955238
-0.260742 0.354492 0.841983 0.340154 0.325904 -0.882089
-0.254883 0.352221 0.842773 0.120336 0.422372 -0.898399
-0.249023 0.349119 0.842773 0.072878 0.278352 -0.95771
-0.242892 0.348633 0.842773 0.0588813 0.164239 -0.984662
-0.243164 0.348725 0.842773 0.0595742 0.170577 -0.983542
-0.237305 0.348633 0.843458 0.00359642 0.0496714 -0.998759
-0.27832 0.360352 0.844405 0.0858536 0.64551 -0.758911
-0.272349 0.360352 0.842773 -0.0266239 0.888901 -0.457325
-0.272461 0.360352 0.84287 -0.0258252 0.882088 -0.470377
-0.254883 0.360352 0.84745 0.0802105 0.413445 -0.906989
-0.249023 0.360352 0.848389 0.00417279 0.478047 -0.878325
-0.235465 0.342773 0.842773 0.0209401 0.100242 -0.994743
-0.237305 0.344452 0.842773 0.0411657 0.122978 -0.991555
-0.27832 0.357059 0.842773 0.0515392 0.451676 -0.890692
-0.272461 0.360061 0.842773 -0.0318961 0.864949 -0.500844
-0.256996 0.354492 0.842773 0.216153 0.376071 -0.901026
-0.254883 0.354492 0.843333 0.125667 0.376694 -0.917774
-0.249023 0.354492 0.844051 -0.0446106 0.370065 -0.927934
-0.243164 0.354492 0.844485 -0.178908 0.279224 -0.943412
-0.237305 0.354492 0.844792 -0.183127 0.167345 -0.968741
-0.248276 0.360352 0.848633 -0.00212321 0.500038 -0.866001
-0.241873 0.360352 0.848633 -0.0426667 0.593261 -0.803878
-0.243164 0.360352 0.849141 -0.00531421 0.582888 -0.812535
-0.243164 0.359187 0.848633 -0.0721531 0.550293 -0.831848
-0.231445 0.336914 0.842561 -0.0165129 0.132033 -0.991108
-0.225586 0.336914 0.842363 -0.0416561 0.119936 -0.991907
-0.219727 0.336914 0.841784 0.0180134 0.135551 -0.990607
-0.213867 0.336914 0.841712 0.0658027 0.119871 -0.990606
-0.208008 0.336914 0.842717 0.0800534 0.0942585 -0.992324
-0.219727 0.348633 0.842702 -0.0179392 0.132351 -0.991041
-0.213867 0.348633 0.842725 0.0303308 0.00733221 -0.999513
-0.208008 0.348633 0.842668 0.16511 0.0330651 -0.985721
-0.231445 0.331055 0.841035 0.010247 0.17749 -0.984069
-0.225586 0.331055 0.8412 -0.0354383 0.152528 -0.987664
-0.219727 0.331055 0.840938 0.00732944 0.147109 -0.989093
-0.213867 0.331055 0.840971 0.0751143 0.143953 -0.98673
-0.208008 0.331055 0.841105 0.101667 0.137348 -0.985291
-0.202148 0.331055 0.841873 0.103503 0.113079 -0.98818
-0.196289 0.331055 0.842761 0.0597396 0.11363 -0.991726
-0.219727 0.342773 0.842726 0.014226 0.0946733 -0.995407
-0.231445 0.338506 0.842773 -0.0192127 0.110651 -0.993674
-0.225586 0.342398 0.842773 -0.0280746 0.0939043 -0.995185
-0.213867 0.340968 0.842773 0.0361837 0.0780173 -0.996295
-0.206416 0.336914 0.842773 0.0785424 0.0909602 -0.992752
-0.208008 0.337691 0.842773 0.0753398 0.0818096 -0.993796
-0.202148 0.336914 0.842921 0.0738428 0.100316 -0.992212
-0.196289 0.336914 0.843309 0.0530159 0.11155 -0.992344
-0.19043 0.336914 0.843924 0.0258211 0.146587 -0.988861
-0.231445 0.348633 0.843456 -0.0466797 0.00908018 -0.998869
-0.221765 0.348633 0.842773 -0.0215357 0.210273 -0.977406
-0.225586 0.348633 0.842916 -0.0382877 0.125438 -0.991362
-0.219727 0.348928 0.842773 -0.0194463 0.134794 -0.990683
-0.213867 0.348867 0.842773 0.0303841 0.00478999 -0.999527
-0.207311 0.348633 0.842773 0.185319 0.0392312 -0.981895
-0.208008 0.349148 0.842773 0.174763 0.028321 -0.984203
-0.202148 0.348633 0.843534 0.16883 0.133611 -0.976547
-0.196289 0.348633 0.844674 0.0760995 0.324342 -0.942874
-0.19043 0.348633 0.845825 0.11412 0.215615 -0.969787
-0.202148 0.336077 0.842773 0.0752503 0.104615 -0.991662
-0.196178 0.331055 0.842773 0.0582118 0.114138 -0.991758
-0.196289 0.331174 0.842773 0.0598565 0.112541 -0.991843
-0.19043 0.331055 0.84335 0.00368309 0.131177 -0.991352
-0.219727 0.360352 0.846265 0.0276099 0.595513 -0.802871
-0.231445 0.342773 0.843392 -0.0317153 0.0849372 -0.995881
-0.223293 0.342773 0.842773 -0.00226638 0.0990703 -0.995078
-0.225586 0.342773 0.842804 -0.0288854 0.0939973 -0.995153
-0.21926 0.342773 0.842773 0.0156457 0.093885 -0.99546
-0.213867 0.348159 0.842773 0.0297926 0.0111154 -0.999494
-0.213867 0.342773 0.843274 0.033223 0.0631142 -0.997453
-0.208008 0.347319 0.842773 0.137339 0.045029 -0.9895
-0.208008 0.342773 0.843129 0.0814141 0.052133 -0.995316
-0.202148 0.342773 0.843603 0.118645 0.130256 -0.984356
-0.196289 0.342773 0.844099 0.101915 0.140003 -0.984892
-0.19043 0.342773 0.844126 0.0904074 0.125316 -0.987989
-0.231445 0.354492 0.844451 -0.0394635 0.136615 -0.989838
-0.225586 0.354492 0.84424 0.0211996 0.162917 -0.986412
-0.219727 0.354492 0.84395 -0.0568639 0.176275 -0.982697
-0.213867 0.354492 0.843791 -0.0124109 0.152217 -0.988269
-0.208008 0.354492 0.843693 0.268908 0.15626 -0.950406
-0.202148 0.354492 0.844747 0.415877 0.308388 -0.855537
-0.196289 0.354492 0.847011 0.100138 0.63243 -0.768117
-0.18457 0.331055 0.843086 -0.00493918 0.13636 -0.990647
-0.178711 0.331055 0.843111 -0.00431277 0.136036 -0.990695
-0.172852 0.331055 0.843098 -0.00178059 0.123997 -0.992281
-0.166992 0.331055 0.843061 0.00546626 0.116137 -0.993218
-0.161133 0.331055 0.842968 0.022403 0.105134 -0.994206
-0.155273 0.331055 0.843197 0.0619147 0.087652 -0.994225
-0.149414 0.331055 0.843433 0.0803971 0.0907826 -0.99262
-0.143555 0.331055 0.844154 0.0708904 0.106851 -0.991745
-0.18457 0.342773 0.844531 0.0637094 0.19155 -0.979413
-0.178711 0.342773 0.844589 -0.0115827 0.197738 -0.980186
-0.172852 0.342773 0.844683 -0.0784339 0.20478 -0.97566
-0.166992 0.342773 0.844523 -0.0788157 0.218366 -0.972679
-0.161133 0.342773 0.844376 -0.00779463 0.197612 -0.980249
-0.155273 0.342773 0.843822 0.111919 0.131618 -0.984962
-0.149414 0.342773 0.84428 0.144993 0.0970092 -0.984666
-0.143555 0.342773 0.845395 0.0890974 0.219435 -0.97155
-0.18457 0.336914 0.843819 0.0104024 0.200446 -0.97965
-0.178711 0.336914 0.844095 -0.00699965 0.217219 -0.976098
-0.172852 0.336914 0.843618 -0.010732 0.193295 -0.981082
-0.166992 0.336914 0.843697 -0.00912276 0.133806 -0.990966
-0.161133 0.336914 0.843738 0.00476325 0.100361 -0.99494
-0.155273 0.336914 0.843818 0.0609652 0.103074 -0.992804
-0.149414 0.336914 0.844056 0.0966198 0.151445 -0.983732
-0.143555 0.336914 0.844676 0.0959345 0.166767 -0.981318
-0.161133 0.354492 0.847776 0.0158556 0.274391 -0.961487
-0.155273 0.354492 0.848128 0.0956202 0.79334 -0.601222
-0.18457 0.348633 0.846695 0.0545532 0.698978 -0.713059
-0.178711 0.348633 0.847452 -0.000321248 0.690691 -0.72315
-0.172852 0.348633 0.847463 -0.007845 0.275061 -0.961395
-0.166992 0.348633 0.84616 -0.0427011 0.315534 -0.947953
-0.161133 0.348633 0.845324 -0.0632959 0.26287 -0.962753
-0.155273 0.348633 0.845046 -0.0324179 0.22763 -0.973208
-0.149414 0.348633 0.846152 0.200257 0.157252 -0.967041
-0.143555 0.348633 0.847711 0.18727 0.234174 -0.953988
-0.167774 0.354492 0.848633 -0.0875529 0.269707 -0.958954
-0.165667 0.354492 0.848633 -0.0631014 0.252252 -0.965602
-0.166992 0.354492 0.848909 -0.0785616 0.264018 -0.961313
-0.141058 0.354492 0.848633 0.0971078 0.718143 -0.689086
-0.166992 0.353857 0.848633 -0.0538043 0.253142 -0.965932
-0.166992 0.360352 0.85054 -0.114154 0.911605 -0.3949
-0.137695 0.336914 0.844966 0.108196 0.166799 -0.980037
-0.131836 0.336914 0.845844 0.215575 0.23536 -0.947699
-0.125977 0.336914 0.846282 0.371728 0.399023 -0.838211
-0.120117 0.336914 0.847887 0.229467 0.437096 -0.86965
-0.102539 0.336914 0.848181 -0.0910284 0.335455 -0.937648
-0.0966797 0.336914 0.847841 -0.0110993 0.344749 -0.938629
-0.137695 0.348633 0.847482 0.191628 0.259785 -0.946462
-0.131836 0.348633 0.848036 0.318921 0.591277 -0.74073
-0.137695 0.331055 0.844408 0.0690102 0.129858 -0.989128
-0.131836 0.331055 0.844677 0.110107 0.154434 -0.981849
-0.125977 0.331055 0.845101 0.193327 0.264176 -0.9449
-0.120117 0.331055 0.846119 0.126804 0.4338 -0.892042
-0.114258 0.331055 0.847228 0.00767434 0.421696 -0.906705
-0.108398 0.331055 0.846876 -0.0400039 0.281615 -0.958693
-0.102539 0.331055 0.847429 -0.0270651 0.173633 -0.984438
-0.0966797 0.331055 0.846817 0.0113768 0.161427 -0.986819
-0.137695 0.342773 0.846019 0.152842 0.228017 -0.961586
-0.131836 0.342773 0.846705 0.387555 0.251994 -0.886736
-0.125977 0.342773 0.847826 0.46267 0.319978 -0.826771
-0.117834 0.336914 0.848633 0.0852485 0.429958 -0.898815
-0.120117 0.337848 0.848633 0.239623 0.419403 -0.875604
-0.114258 0.336914 0.849642 -0.0900967 0.412664 -0.906417
-0.106019 0.336914 0.848633 -0.168333 0.336603 -0.926479
-0.108398 0.336914 0.848923 -0.206812 0.355599 -0.91147
-0.102539 0.338155 0.848633 -0.104663 0.372649 -0.922051
-0.0966797 0.339602 0.848633 -0.0217019 0.421358 -0.906635
-0.137695 0.350292 0.848633 0.212485 0.290159 -0.933091
-0.130661 0.348633 0.848633 0.32597 0.614659 -0.718288
-0.125977 0.348633 0.851075 0.415416 0.250992 -0.874318
-0.108398 0.348633 0.853456 -0.239575 0.325081 -0.914837
-0.102539 0.348633 0.853726 -0.0688661 0.720984 -0.689521
-0.0966797 0.348633 0.853115 -0.0582496 0.836634 -0.544656
-0.114258 0.334232 0.848633 -0.0172964 0.4984 -0.866774
-0.108398 0.335986 0.848633 -0.170453 0.350517 -0.920915
-0.124984 0.342773 0.848633 0.445943 0.312936 -0.838574
-0.125977 0.344182 0.848633 0.453201 0.251358 -0.855236
-0.120117 0.342773 0.851883 0.220598 0.340437 -0.914023
-0.108398 0.342773 0.852492 -0.212852 0.289591 -0.933183
-0.102539 0.342773 0.850198 -0.0704064 0.306631 -0.949221
-0.0966797 0.342773 0.849545 -0.067627 0.290239 -0.954562
-0.133057 0.354492 0.848633 0.267525 0.770767 -0.578229
-0.137695 0.354492 0.851035 0.168771 0.751901 -0.637307
-0.130854 0.354492 0.848633 0.134663 0.776026 -0.616157
-0.125977 0.354492 0.852292 0.106129 0.857963 -0.502629
-0.0908203 0.336914 0.847936 -0.0273803 0.265095 -0.963833
-0.0849609 0.336914 0.847892 -0.00820948 0.12212 -0.992481
-0.0791016 0.336914 0.847958 0.0370451 0.0895633 -0.995292
-0.0732422 0.336914 0.848452 -0.0820399 0.10894 -0.990657
-0.0673828 0.336914 0.848385 -0.180291 0.0993179 -0.978586
-0.0615234 0.336914 0.846173 -0.054709 0.0943657 -0.994033
-0.0556641 0.336914 0.846322 0.050285 0.0854543 -0.995072
-0.0498047 0.336914 0.846823 0.0299423 0.0796885 -0.99637
-0.0615234 0.348633 0.847439 -0.0810435 0.0725711 -0.994065
-0.0556641 0.348633 0.847475 0.0289091 0.0687714 -0.997213
-0.0498047 0.348633 0.847571 0.019644 0.0504589 -0.998533
-0.0615234 0.360352 0.847951 -0.0344824 0.0591241 -0.997655
-0.0556641 0.360352 0.848405 0.0112493 0.0818102 -0.996584
-0.0498047 0.360352 0.848244 0.00962311 0.0864941 -0.996206
-0.0908203 0.331055 0.847191 0.0410415 0.134465 -0.990068
-0.0849609 0.331055 0.847643 0.035402 0.0893767 -0.995369
-0.0791016 0.331055 0.847933 0.0168494 0.0867764 -0.996085
-0.0732422 0.331055 0.847743 -0.086989 0.0946245 -0.991705
-0.0673828 0.331055 0.847831 -0.165487 0.0617538 -0.984277
-0.0615234 0.331055 0.845841 -0.0560645 0.0582079 -0.996729
-0.0556641 0.331055 0.845855 0.0536418 0.079651 -0.995378
-0.0498047 0.331055 0.846326 0.0324796 0.0876776 -0.995619
-0.0791016 0.342773 0.84857 0.00618169 0.157247 -0.98754
-0.0615234 0.342773 0.84686 -0.0710421 0.0932232 -0.993107
-0.0556641 0.342773 0.847092 0.0354036 0.0781579 -0.996312
-0.0498047 0.342773 0.847385 0.0277406 0.073816 -0.996886
-0.0615234 0.354492 0.84768 -0.0704387 0.0569629 -0.995888
-0.0556641 0.354492 0.848194 0.00953666 0.058871 -0.99822
-0.0498047 0.354492 0.848018 0.00715114 0.042401 -0.999075
-0.0908203 0.338861 0.848633 -0.0488455 0.305 -0.951099
-0.0849609 0.340669 0.848633 -0.0617157 0.16384 -0.984555
-0.0732422 0.338345 0.848633 -0.0795215 0.106387 -0.99114
-0.0673828 0.338727 0.848633 -0.185945 0.105487 -0.976881
-0.0615234 0.366211 0.848428 -0.0711293 0.0763917 -0.994538
-0.0556641 0.366211 0.848399 0.0388644 0.0979362 -0.994434
-0.0908203 0.348633 0.853326 -0.146643 0.600567 -0.786012
-0.0849609 0.348633 0.850828 -0.148585 0.179662 -0.972442
-0.0791016 0.348633 0.849143 -0.0448633 0.087674 -0.995138
-0.0732422 0.348633 0.849446 -0.119677 0.0760265 -0.989898
-0.0647786 0.348633 0.848633 -0.180948 0.0657805 -0.98129
-0.0673828 0.348633 0.849597 -0.190443 0.0882082 -0.977727
-0.0498047 0.364247 0.848633 0.00727428 0.109277 -0.993985
-0.0615234 0.37207 0.848915 -0.0431831 0.0763818 -0.996143
-0.0556641 0.37207 0.849407 0.0347787 0.061382 -0.997508
-0.0498047 0.37207 0.84992 -0.0145706 0.0634068 -0.997881
-0.0908203 0.342773 0.849951 -0.149731 0.233307 -0.960806
-0.0798626 0.342773 0.848633 -0.00319758 0.162075 -0.986773
-0.0849609 0.342773 0.849035 -0.129977 0.182265 -0.974621
-0.078509 0.342773 0.848633 0.0142124 0.151941 -0.988287
-0.0791016 0.343438 0.848633 -0.00260722 0.169701 -0.985492
-0.0732422 0.342773 0.849223 -0.0757165 0.112393 -0.990775
-0.0659748 0.342773 0.848633 -0.175196 0.0950209 -0.979937
-0.0673828 0.342773 0.849216 -0.178848 0.0957249 -0.979209
-0.0849609 0.354492 0.851434 -0.71587 0.167939 -0.677736
-0.0791016 0.354492 0.851632 -0.0837278 0.176962 -0.98065
-0.0732422 0.354492 0.851317 -0.040534 0.141666 -0.989084
-0.0634477 0.354492 0.848633 -0.152373 0.0576494 -0.98664
-0.0673828 0.360006 0.848633 -0.190653 0.079371 -0.978443
-0.0673828 0.354492 0.850468 -0.21123 0.0708102 -0.974868
-0.0615234 0.368498 0.848633 -0.120118 0.0854486 -0.989075
-0.0524888 0.366211 0.848633 0.00824813 0.103671 -0.994577
-0.0556641 0.367551 0.848633 0.0429906 0.0941272 -0.994632
-0.0498047 0.366211 0.848836 -0.00898969 0.0963205 -0.99531
-0.0439453 0.331055 0.846463 0.0206615 0.0911441 -0.995623
-0.0380859 0.331055 0.846575 0.0345647 0.081461 -0.996077
-0.0322266 0.331055 0.846833 0.0238456 0.0853666 -0.996064
-0.0263672 0.331055 0.84698 0.00838167 0.0865471 -0.996212
-0.0205078 0.331055 0.846771 0.00562881 0.11358 -0.993513
-0.0146484 0.331055 0.847144 -0.0119835 0.132941 -0.991052
-0.00878906 0.331055 0.846648 0.0233022 0.128823 -0.991394
-0.00292969 0.331055 0.846972 0.0982489 0.140576 -0.985183
-0.0439453 0.342773 0.847391 0.0272017 0.0672082 -0.997368
-0.0380859 0.342773 0.847664 0.0427868 0.0719405 -0.996491
-0.0322266 0.342773 0.847917 0.0391306 0.0972845 -0.994487
-0.0263672 0.342773 0.848055 0.0388307 0.121625 -0.991816
-0.0205078 0.342773 0.847977 0.0340874 0.130539 -0.990857
-0.00878906 0.342773 0.848053 0.0192363 0.157145 -0.987388
-0.00292969 0.342773 0.848345 0.0874086 0.119099 -0.989027
-0.0439453 0.336914 0.846891 0.023286 0.0820559 -0.996356
-0.0380859 0.336914 0.847021 0.0344742 0.0861314 -0.995687
-0.0322266 0.336914 0.847057 0.0232485 0.0892964 -0.995734
-0.0263672 0.336914 0.847607 0.0197297 0.099277 -0.994864
-0.0205078 0.336914 0.847176 0.0220874 0.118584 -0.992698
-0.0146484 0.336914 0.847864 -0.00615978 0.128331 -0.991712
-0.00878906 0.336914 0.847389 0.0303946 0.130061 -0.99104
-0.00292969 0.336914 0.847674 0.115736 0.122913 -0.985646
-0.0439453 0.354492 0.84834 0.036558 0.0498424 -0.998088
-0.0380859 0.354492 0.847989 0.0822561 0.0425626 -0.995702
-0.0439453 0.348633 0.84804 0.0221723 0.0484233 -0.998581
-0.0380859 0.348633 0.847789 0.0667599 0.0575217 -0.99611
-0.0322266 0.348633 0.848395 0.0745986 0.0879348 -0.993329
-0.0322266 0.366211 0.848534 0.103477 0.0807414 -0.991349
-0.0439453 0.360352 0.848129 0.0224177 0.0650873 -0.997628
-0.0380859 0.360352 0.848578 0.0537288 0.0360501 -0.997905
-0.0263672 0.348353 0.848633 0.0562208 0.106453 -0.992727
-0.015222 0.342773 0.848633 0.00531134 0.143722 -0.989604
-0.0205078 0.346508 0.848633 0.0440673 0.13008 -0.990524
-0.0140473 0.342773 0.848633 -0.000957889 0.153564 -0.988138
-0.0146484 0.342773 0.848702 0.00232646 0.148745 -0.988873
-0.00878906 0.34558 0.848633 0.0039005 0.169665 -0.985494
-0.000286937 0.342773 0.848633 0.118753 0.0990888 -0.987967
-0.00292969 0.344735 0.848633 0.0625055 0.120242 -0.990775
-0.0146484 0.342258 0.848633 0.00108498 0.146683 -0.989183
-0.033565 0.354492 0.848633 0.0983355 0.0265794 -0.994798
-0.0322266 0.354492 0.848833 0.0850632 0.0375585 -0.995667
-0.0263672 0.354492 0.849388 0.0570477 0.0603775 -0.996544
-0.0205078 0.354492 0.849512 0.0818558 0.073329 -0.993943
-0.0146484 0.354492 0.850018 0.0679924 0.120751 -0.990352
-0.00878906 0.354492 0.850226 0.00624772 0.152614 -0.988266
-0.00292969 0.354492 0.850245 -0.0179546 0.132547 -0.991014
-0.0270034 0.348633 0.848633 0.055801 0.104125 -0.992998
-0.0322266 0.351873 0.848633 0.0854863 0.068719 -0.993967
-0.0263672 0.348633 0.848662 0.0564195 0.103839 -0.992993
-0.0205078 0.348633 0.849007 0.049724 0.109617 -0.992729
-0.0146484 0.348633 0.849281 0.0168922 0.149987 -0.988544
-0.00878906 0.348633 0.849317 -0.000174144 0.173287 -0.984871
-0.00292969 0.348633 0.849229 0.0286983 0.134074 -0.990556
-0.0439453 0.366211 0.848849 -0.0144149 0.0752634 -0.99706
-0.0338567 0.366211 0.848633 0.0809189 0.0843807 -0.993143
-0.0380859 0.366211 0.84891 0.0311728 0.0742128 -0.996755
-0.031598 0.366211 0.848633 0.111639 0.0783409 -0.990656
-0.0322266 0.366933 0.848633 0.103363 0.0924053 -0.990342
-0.0263672 0.366211 0.849534 0.125478 0.0882774 -0.988161
-0.0205078 0.366211 0.850417 0.0992383 0.0786086 -0.991954
-0.0146484 0.366211 0.851013 0.0561784 0.0173629 -0.99827
-0.00878906 0.366211 0.851708 0.000109804 -0.00910039 -0.999959
-0.00292969 0.366211 0.85151 0.0111554 0.0285062 -0.999531
-0.0439453 0.364417 0.848633 -0.00471479 0.0716193 -0.997421
-0.0333632 0.360352 0.848633 0.0890122 0.0113274 -0.995966
-0.0380859 0.361345 0.848633 0.0440357 0.037889 -0.998311
-0.0322266 0.361014 0.848633 0.0955139 0.0162099 -0.995296
-0.0322266 0.360352 0.848647 0.0935796 0.0129242 -0.995528
-0.0263672 0.360352 0.84963 0.0916243 0.0529792 -0.994383
-0.0205078 0.360352 0.849624 0.113273 0.0798541 -0.99035
-0.0146484 0.360352 0.850518 0.102159 0.0706315 -0.992257
-0.00878906 0.360352 0.851484 0.0087476 0.0684196 -0.997618
-0.00292969 0.360352 0.851448 -0.035593 0.0681104 -0.997043
-0.0439453 0.37207 0.849324 0.000106494 0.0879795 -0.996122
-0.0380859 0.37207 0.849092 0.0552665 0.1063 -0.992797
-0.0322266 0.37207 0.849365 0.101733 0.137826 -0.985218
-0.0263672 0.37207 0.85008 0.0956192 0.131603 -0.98668
-0.0205078 0.37207 0.85108 0.0478377 0.080275 -0.995624
-0.0146484 0.37207 0.851208 0.0176283 0.0429659 -0.998921
-0.00878906 0.37207 0.851295 0.0216683 0.054346 -0.998287
-0.00292969 0.37207 0.851289 0.0513452 0.0903819 -0.994583
0.354492 0.348633 0.843725 -0.0709322 0.942472 0.326672
0.354492 0.348255 0.842773 -0.100342 0.70157 0.7055
0.00292969 0.336914 0.848307 0.103608 0.118144 -0.987577
0.00292969 0.331055 0.84729 0.10288 0.156913 -0.982239
0.00878906 0.331055 0.848306 0.060189 0.128709 -0.989854
0.0146484 0.331055 0.848355 0.0865912 0.0873617 -0.992406
0.00465202 0.336914 0.848633 0.0760451 0.117385 -0.990171
0.00292969 0.339677 0.848633 0.106261 0.0909429 -0.990171
0.00878906 0.336914 0.849408 0.0219262 0.113448 -0.993302
0.0146484 0.336914 0.848985 0.0547648 0.103634 -0.993107
0.0205078 0.336914 0.849453 0.122905 0.0871701 -0.988583
0.0263672 0.336914 0.85037 0.189729 0.105508 -0.976151
0.0322266 0.336914 0.850676 0.332686 0.151461 -0.930795
0.0380859 0.336914 0.853128 0.354927 0.191709 -0.915027
0.00292969 0.348633 0.849434 0.0705259 0.0685839 -0.995149
0.00878906 0.348633 0.850177 0.0738432 0.055331 -0.995734
0.0146484 0.348633 0.850635 0.0823647 0.0878511 -0.992723
0.0205078 0.348633 0.850978 0.120242 0.112282 -0.986374
0.0263672 0.348633 0.851626 0.221596 0.117128 -0.968079
0.0322266 0.348633 0.852518 0.367186 0.102471 -0.924486
0.00878906 0.332837 0.848633 0.045559 0.126812 -0.99088
0.0165304 0.331055 0.848633 0.115385 0.0852641 -0.989655
0.0146484 0.333611 0.848633 0.0699269 0.0827484 -0.994114
0.0205078 0.331055 0.849204 0.111001 0.0876603 -0.989947
0.0263672 0.331055 0.850151 0.140373 0.112072 -0.983735
0.0322266 0.331055 0.850227 0.28327 0.143522 -0.94824
0.0380859 0.331055 0.852071 0.319863 0.170503 -0.931996
0.0439453 0.331055 0.854313 0.24212 0.196854 -0.950067
0.00292969 0.360352 0.85088 -0.00917577 0.0931813 -0.995607
0.00878906 0.360352 0.850862 0.0426098 0.0956861 -0.994499
0.0146484 0.360352 0.85101 0.129131 0.0976708 -0.986806
0.0205078 0.360352 0.851812 0.156487 0.102852 -0.98231
0.0263672 0.360352 0.853014 0.163173 0.0845709 -0.982966
0.0322266 0.360352 0.853589 0.231324 0.00465999 -0.972866
0.00292969 0.342773 0.849003 0.0981628 0.0714257 -0.992604
0.00878906 0.342773 0.85019 0.0366009 0.0870247 -0.995534
0.0146484 0.342773 0.849749 0.055626 0.121521 -0.991029
0.0205078 0.342773 0.850125 0.117681 0.113375 -0.986558
0.0263672 0.342773 0.851 0.215022 0.116842 -0.969595
0.0322266 0.342773 0.851739 0.367305 0.138477 -0.919734
0.0380859 0.342773 0.854338 0.412286 0.161177 -0.896684
0.00292969 0.37207 0.851614 0.07805 0.114661 -0.990334
0.00878906 0.37207 0.852047 0.0846358 0.132823 -0.98752
0.0146484 0.37207 0.852409 0.101038 0.132782 -0.985982
0.0205078 0.37207 0.853022 0.10639 0.104526 -0.988815
0.0263672 0.37207 0.854064 0.114977 0.088607 -0.989408
0.0322266 0.37207 0.854184 0.1738 0.0788104 -0.981623
0.00292969 0.354492 0.850074 0.0135794 0.0946884 -0.995414
0.00878906 0.354492 0.85038 0.056556 0.0582248 -0.9967
0.0146484 0.354492 0.850926 0.111636 0.0654236 -0.991593
0.0205078 0.354492 0.851268 0.149903 0.103763 -0.983241
0.0263672 0.354492 0.852394 0.214244 0.10127 -0.971516
0.0322266 0.354492 0.853127 0.31963 0.0388274 -0.946747
0.00292969 0.366211 0.851395 0.0427838 0.0783894 -0.996004
0.00878906 0.366211 0.851719 0.0583062 0.117162 -0.9914
0.0146484 0.366211 0.851669 0.117464 0.122059 -0.985547
0.0205078 0.366211 0.852608 0.137068 0.0896059 -0.9865
0.0263672 0.366211 0.853731 0.120748 0.0680839 -0.990346
0.0322266 0.366211 0.853994 0.177706 0.0388596 -0.983316
-0.0615234 0.418945 0.852032 0.00592888 0.0760453 -0.997087
-0.0556641 0.418945 0.85323 0.11202 0.0724152 -0.991064
-0.0498047 0.418945 0.853524 0.0704216 0.0691141 -0.99512
-0.0615234 0.37793 0.849242 -0.0133177 0.077363 -0.996914
-0.0556641 0.37793 0.849829 0.0243159 0.0544736 -0.998219
-0.0498047 0.37793 0.84957 0.0177862 0.0756131 -0.996979
-0.0615234 0.407227 0.850719 0.0356772 0.0865613 -0.995607
-0.0556641 0.407227 0.852121 0.134298 0.0876162 -0.98706
-0.0498047 0.407227 0.852752 0.0950714 0.0801056 -0.992242
-0.0615234 0.389648 0.850679 -0.0949319 0.106634 -0.989756
-0.0556641 0.389648 0.850732 0.0373735 0.126444 -0.991269
-0.0498047 0.389648 0.850986 0.0410017 0.139268 -0.989406
-0.0615234 0.383789 0.84963 -0.0800208 0.108676 -0.990851
-0.0556641 0.383789 0.849865 0.03339 0.105745 -0.993832
-0.0498047 0.383789 0.850057 0.0323622 0.123039 -0.991874
-0.0615234 0.395508 0.851102 -0.0688458 0.0424506 -0.996724
-0.0556641 0.395508 0.851494 0.0622641 0.095832 -0.993448
-0.0498047 0.395508 0.851667 0.0602813 0.121193 -0.990797
-0.0615234 0.401367 0.850607 0.00575478 0.0361054 -0.999331
-0.0556641 0.401367 0.851864 0.118718 0.0817102 -0.98956
-0.0498047 0.401367 0.852435 0.0868655 0.105257 -0.990644
-0.0615234 0.413086 0.851265 0.0282669 0.0781031 -0.996544
-0.0556641 0.413086 0.853022 0.117381 0.0666955 -0.990845
-0.0498047 0.413086 0.853361 0.0904963 0.0540329 -0.99443
-0.0439453 0.383789 0.850383 0.0362541 0.128825 -0.991004
-0.0380859 0.383789 0.850284 0.0973021 0.131312 -0.986554
-0.0322266 0.383789 0.850605 0.127564 0.128768 -0.983436
-0.0263672 0.383789 0.852157 0.0370364 0.105813 -0.993696
-0.0205078 0.383789 0.852303 -0.00254564 0.0805059 -0.996751
-0.0146484 0.383789 0.851993 0.0416419 0.0860875 -0.995417
-0.00878906 0.383789 0.852528 0.0649662 0.0974173 -0.993121
-0.00292969 0.383789 0.852687 0.106701 0.126037 -0.98627
-0.0439453 0.37793 0.849698 0.033855 0.100661 -0.994345
-0.0380859 0.37793 0.849903 0.0867426 0.110189 -0.990118
-0.0322266 0.37793 0.85037 0.120242 0.143199 -0.982363
-0.0263672 0.37793 0.851153 0.0583778 0.137906 -0.988723
-0.0205078 0.37793 0.851606 0.00935017 0.0870755 -0.996158
-0.0146484 0.37793 0.851573 0.0284228 0.0867707 -0.995823
-0.00878906 0.37793 0.851761 0.04775 0.109619 -0.992826
-0.00292969 0.37793 0.851859 0.0713653 0.129359 -0.989026
-0.0439453 0.407227 0.853457 0.0609796 0.0867845 -0.994359
-0.0380859 0.407227 0.853689 0.0425328 0.0957266 -0.994499
-0.0322266 0.407227 0.853982 0.0792457 0.0872843 -0.993026
-0.0263672 0.407227 0.854383 0.0707731 0.104855 -0.991966
-0.0146484 0.407227 0.854492 0.0272836 0.160891 -0.986595
-0.0439453 0.389648 0.851121 0.0416574 0.152128 -0.987482
-0.0380859 0.389648 0.851278 0.0866453 0.147498 -0.98526
-0.0322266 0.389648 0.851721 0.0975538 0.111847 -0.988925
-0.0263672 0.389648 0.852952 0.0162472 0.10246 -0.994605
-0.0205078 0.389648 0.852799 -0.0101729 0.0948607 -0.995439
-0.0146484 0.389648 0.852384 0.0443527 0.0888084 -0.995061
-0.00878906 0.389648 0.853076 0.0862409 0.115737 -0.989529
-0.00292969 0.389648 0.853074 0.131699 0.148709 -0.980072
-0.0439453 0.395508 0.852121 0.0484649 0.140099 -0.988951
-0.0380859 0.395508 0.852435 0.0587072 0.130938 -0.989651
-0.0322266 0.395508 0.852652 0.0770081 0.0980864 -0.992194
-0.0263672 0.395508 0.853594 0.0128685 0.110309 -0.993814
-0.0205078 0.395508 0.85324 -0.014857 0.121581 -0.99247
-0.0146484 0.395508 0.852951 0.0645992 0.101662 -0.992719
-0.00878906 0.395508 0.853505 0.125374 0.137477 -0.982538
-0.00292969 0.395508 0.853953 0.13227 0.155208 -0.978987
-0.0439453 0.418945 0.854301 0.0624565 0.0461769 -0.996979
-0.0380859 0.418945 0.854424 0.0779691 0.0694312 -0.994535
-0.0439453 0.401367 0.853057 0.0462902 0.115086 -0.992276
-0.0380859 0.401367 0.853196 0.0416765 0.117096 -0.992246
-0.0322266 0.401367 0.853244 0.079832 0.0973794 -0.99204
-0.0263672 0.401367 0.853749 0.0345762 0.118813 -0.992314
-0.0205078 0.401367 0.854352 -0.0202828 0.150575 -0.98839
-0.0146484 0.401367 0.853426 0.0632482 0.126858 -0.989902
-0.00878906 0.401367 0.854206 0.147915 0.115997 -0.982174
-0.0439453 0.413086 0.854223 0.066521 0.0451452 -0.996763
-0.0380859 0.413086 0.854438 0.0434499 0.0546393 -0.99756
-0.370419 0.37793 0.831055 0.399759 0.0159861 -0.916481
-0.366211 0.37793 0.833483 0.276107 0.150813 -0.949221
-0.360352 0.37793 0.834742 0.159182 0.125737 -0.979209
-0.354492 0.37793 0.836337 0.228066 0.0563827 -0.972012
-0.366211 0.389648 0.832016 0.343487 -0.179444 -0.921855
-0.360352 0.389648 0.836235 0.149738 0.0743015 -0.98593
-0.354492 0.389648 0.836771 0.145031 0.0695477 -0.98698
-0.348633 0.389648 0.836699 0.55236 0.0448255 -0.832399
-0.366211 0.383789 0.832356 0.323569 -0.0332995 -0.945618
-0.360352 0.383789 0.83639 0.097401 0.0620639 -0.993308
